x,y,z,i,r,t
38.04403305053711,15.92219066619873,3.1783740520477295,10.0,118.0,1748443579994051.0
-7.159427165985107,7.124357223510742,0.2654905617237091,20.0,92.0,1748443579960931.0
-12.266616821289062,-6.380431652069092,-0.23843501508235931,10.0,67.0,1748443579944029.0
-3.7624175548553467,-6.149997711181641,-0.5260617733001709,60.0,35.0,1748443579935396.0
7.3783769607543945,7.155538082122803,0.46721312403678894,49.0,103.0,1748443579989047.0
4.566281318664551,-4.358640193939209,-0.6261074542999268,46.0,20.0,1748443579910614.0
-7.3385910987854,0.2892162799835205,-0.8528963327407837,20.0,11.0,1748443579952288.0
7.106679439544678,5.456320762634277,-0.403986394405365,27.0,51.0,1748443579991244.0
30.756484985351562,5.960207939147949,0.11472023278474808,38.0,79.0,1748443579998255.0
-7.441694259643555,3.2435710430145264,-0.6494024395942688,38.0,31.0,1748443579957848.0
-11.462516784667969,1.3591091632843018,-0.5007038712501526,32.0,52.0,1748443579950354.0
-24.96833038330078,-6.7990827560424805,1.6307859420776367,10.0,113.0,1748443579945552.0
-3.6829521656036377,-8.288753509521484,-0.39317744970321655,10.0,52.0,1748443579930121.0
-23.440908432006836,0.1535453200340271,0.9035126566886902,61.0,99.0,1748443579951770.0
-23.978540420532227,-3.765465259552002,1.0203440189361572,25.0,101.0,1748443579946934.0
4.3304972648620605,7.08428430557251,0.1169811561703682,10.0,85.0,1748443579983148.0
-3.478070020675659,-5.2250590324401855,-0.633543074131012,64.0,19.0,1748443579936003.0
5.57124137878418,-4.136895656585693,-0.6398457884788513,49.0,24.0,1748443579909007.0
1.5490120649337769,7.374545097351074,0.9762927889823914,25.0,124.0,1748443579976775.0
-2.2562901973724365,-8.37126636505127,-0.3908816874027252,60.0,51.0,1748443579930845.0
-25.443878173828125,-8.234889030456543,0.7508683204650879,6.0,93.0,1748443579944429.0
-0.931370198726654,-8.56154727935791,-0.3432340621948242,6.0,54.0,1748443579927065.0
-3.999361753463745,-13.48270034790039,0.12492639571428299,38.0,82.0,1748443579930308.0
1.9060369729995728,-6.444443225860596,-0.5607288479804993,32.0,29.0,1748443579919835.0
13.46599292755127,-3.9305472373962402,-0.8537625074386597,3.0,42.0,1748443579905236.0
-25.83785057067871,-49.48904800415039,3.5203568935394287,58.0,113.0,1748443579932433.0
-4.473308563232422,6.720328330993652,-0.645801305770874,38.0,31.0,1748443579966957.0
-4.433619022369385,-8.965781211853027,-0.18975383043289185,25.0,66.0,1748443579933022.0
21.62942123413086,-32.78485870361328,1.3088539838790894,20.0,96.0,1748443579914538.0
0.9074649214744568,0.49508658051490784,-0.008594769053161144,4.0,72.0,1748443579990923.0
1.3704580068588257,7.399914264678955,0.5189861059188843,17.0,116.0,1748443579976384.0
-0.12877309322357178,-9.932785034179688,0.05359094589948654,23.0,80.0,1748443579924028.0
-2.633173704147339,1.208580493927002,-0.8257818222045898,93.0,2.0,1748443579955787.0
-23.54044532775879,-1.5070489645004272,0.4976200461387634,23.0,89.0,1748443579948766.0
3.7007811069488525,-5.788878917694092,-0.621451735496521,38.0,25.0,1748443579915727.0
-63.308143615722656,-38.99259567260742,4.819337844848633,9.0,114.0,1748443579941938.0
-7.752537727355957,7.130879878997803,-0.10633935034275055,58.0,71.0,1748443579963141.0
-20.47549819946289,-16.85788345336914,0.28207388520240784,56.0,83.0,1748443579940701.0
3.2670631408691406,-8.033867835998535,-0.436373233795166,6.0,48.0,1748443579917680.0
3.9012482166290283,7.102008819580078,-0.3087643086910248,6.0,55.0,1748443579984298.0
-3.1562421321868896,-7.854155540466309,-0.3963416814804077,3.0,50.0,1748443579931791.0
-2.447456121444702,-17.945999145507812,0.8875811696052551,1.0,105.0,1748443579926928.0
-42.448612213134766,-44.763092041015625,2.7029502391815186,6.0,102.0,1748443579937428.0
-1.7478199005126953,-6.494006633758545,-0.5023134350776672,25.0,34.0,1748443579929893.0
0.7312371730804443,-8.182276725769043,-0.384608656167984,54.0,50.0,1748443579924290.0
8.062796592712402,7.097279071807861,-0.6908845901489258,25.0,40.0,1748443579987352.0
-20.2489070892334,-3.5262556076049805,-0.10388591140508652,9.0,74.0,1748443579947979.0
-19.20923614501953,-1.1313632726669312,-0.23139625787734985,58.0,70.0,1748443579949418.0
0.42488959431648254,-15.980064392089844,0.643689751625061,62.0,100.0,1748443579923034.0
-16.19121551513672,-36.07229995727539,1.5247498750686646,49.0,99.0,1748443579933372.0
16.885150909423828,4.984007358551025,-1.1643470525741577,4.0,39.0,1748443579996736.0
-4.51624059677124,3.874358892440796,-0.6746911406517029,60.0,12.0,1748443579959787.0
-1.0931789875030518,-17.69120216369629,0.3737693428993225,38.0,89.0,1748443579925755.0
-2.053392171859741,6.492074012756348,-0.6875153183937073,3.0,19.0,1748443579971788.0
0.17907804250717163,-6.466551780700684,-0.5045977234840393,53.0,32.0,1748443579923394.0
21.113590240478516,-20.203065872192383,0.6166138648986816,46.0,89.0,1748443579911926.0
-6.502263069152832,1.74881911277771,-0.6916515231132507,58.0,18.0,1748443579954903.0
-51.20521545410156,-47.80149459838867,4.417603492736816,17.0,113.0,1748443579937824.0
0.9130804538726807,-0.4627285599708557,-0.10261892527341843,2.0,18.0,1748443579908171.0
-7.11106014251709,0.5550981163978577,-0.8546199202537537,9.0,10.0,1748443579951953.0
-2.9944875240325928,-4.939748287200928,-0.6548805832862854,62.0,12.0,1748443579932165.0
-7.127090930938721,1.1880017518997192,-0.641005277633667,46.0,26.0,1748443579953348.0
11.27779769897461,7.111742973327637,0.6530008912086487,42.0,105.0,1748443579990829.0
-0.5355858206748962,1.6121608018875122,-0.02011094242334366,49.0,70.0,1748443579970251.0
33.30805969238281,7.783653259277344,0.4831922948360443,23.0,85.0,1748443579995759.0
-4.81785774230957,-15.133525848388672,0.251806378364563,53.0,86.0,1748443579930250.0
-3.908804416656494,-4.843818664550781,-0.6063722372055054,46.0,21.0,1748443579935225.0
34.797821044921875,-11.142430305480957,0.1975371390581131,49.0,80.0,1748443579903756.0
-12.542389869689941,-2.3547685146331787,-0.6650611758232117,9.0,47.0,1748443579948350.0
0.7741220593452454,-0.2337995320558548,-0.0888645201921463,3.0,12.0,1748443579903226.0
-5.033463478088379,5.7685346603393555,-0.6525353193283081,27.0,28.0,1748443579962069.0
-27.396493911743164,11.666549682617188,0.8361400365829468,25.0,93.0,1748443579955823.0
6.256581783294678,-9.210129737854004,0.7395668029785156,94.0,115.0,1748443579917155.0
-1.8644887208938599,-5.415641784667969,-0.5979534983634949,49.0,17.0,1748443579930056.0
-0.6019541621208191,-6.896779537200928,-0.4687823951244354,27.0,38.0,1748443579926725.0
-27.718576431274414,11.072199821472168,0.5777682065963745,46.0,88.0,1748443579954878.0
-18.157424926757812,-4.556993007659912,-0.3556338846683502,6.0,66.0,1748443579946808.0
1.359389305114746,1.5970550775527954,-0.08271181583404541,67.0,54.0,1748443579986575.0
-5.889937877655029,-8.795352935791016,-0.27458611130714417,23.0,62.0,1748443579934739.0
0.776360034942627,0.008623452857136726,-0.06132342293858528,65.0,30.0,1748443580000178.0
14.734663963317871,-15.860091209411621,-0.14716152846813202,49.0,73.0,1748443579912861.0
1.4005118608474731,1.5402166843414307,-0.08927951753139496,69.0,52.0,1748443579985242.0
-7.599190711975098,7.150960445404053,0.2924804389476776,23.0,93.0,1748443579961432.0
1.7396208047866821,-4.765773296356201,-0.6784679889678955,64.0,8.0,1748443579918277.0
128.90977478027344,-23.93903160095215,1.1668400764465332,27.0,82.0,1748443579903646.0
2.872426986694336,5.428214073181152,-0.5229659080505371,1.0,28.0,1748443579981234.0
-21.85392951965332,-46.35287857055664,5.889829635620117,56.0,123.0,1748443579933662.0
20.00269317626953,3.0602869987487793,-0.7338823080062866,17.0,56.0,1748443579996415.0
-9.818890571594238,-6.332167625427246,-0.3438742458820343,27.0,60.0,1748443579939351.0
-24.67893409729004,-6.646327972412109,0.18268728256225586,20.0,81.0,1748443579945594.0
4.5385565757751465,-4.138164520263672,-0.6737991571426392,54.0,14.0,1748443579912112.0
-11.588449478149414,7.1325764656066895,-0.187236487865448,10.0,69.0,1748443579958198.0
4.010692119598389,5.643975734710693,-0.3722108006477356,65.0,46.0,1748443579985183.0
22.672143936157227,-5.274028301239014,-0.7265565991401672,6.0,59.0,1748443579905299.0
-23.517555236816406,-1.4444457292556763,1.3198201656341553,25.0,109.0,1748443579948437.0
-50.61872863769531,-46.9033317565918,3.627145290374756,4.0,107.0,1748443579939766.0
1.5427029132843018,-10.800215721130371,0.438934326171875,2.0,100.0,1748443579921200.0
16.88938331604004,4.7677812576293945,-1.0992296934127808,8.0,41.0,1748443579995407.0
14.73069953918457,-4.8429741859436035,-0.8355202674865723,7.0,46.0,1748443579905400.0
20.19027328491211,4.374809741973877,-0.788915753364563,49.0,55.0,1748443579997908.0
-2.8533918857574463,-32.07585525512695,1.2978591918945312,42.0,100.0,1748443579924867.0
0.8763948678970337,7.39320182800293,0.36400389671325684,4.0,105.0,1748443579976662.0
9.34679126739502,7.091878890991211,-0.16138461232185364,8.0,69.0,1748443579989085.0
-7.552589416503906,7.157108306884766,0.27352774143218994,38.0,92.0,1748443579960542.0
3.9158382415771484,-9.599947929382324,-0.14256444573402405,7.0,69.0,1748443579918242.0
-7.5126471519470215,-3.590601682662964,-0.6078935861587524,32.0,35.0,1748443579944569.0
-8.633886337280273,-12.043766021728516,0.05420805886387825,46.0,79.0,1748443579936193.0
-8.358625411987305,7.159474849700928,0.42360588908195496,10.0,99.0,1748443579962937.0
-3.995948314666748,-9.636648178100586,-0.17977654933929443,7.0,67.0,1748443579932911.0
-15.705434799194336,-3.138895034790039,-0.4996247887611389,9.0,59.0,1748443579948526.0
29.339155197143555,-28.714000701904297,2.157120943069458,27.0,107.0,1748443579913987.0
-7.366969585418701,7.11649227142334,-0.14084099233150482,17.0,69.0,1748443579961641.0
26.198408126831055,5.324901103973389,-0.5081027746200562,56.0,66.0,1748443579997530.0
-4.152502536773682,-5.152902603149414,-0.5868858098983765,60.0,26.0,1748443579936505.0
-4.5792951583862305,-37.76107406616211,2.6311869621276855,23.0,116.0,1748443579925373.0
-5.834094047546387,4.7839131355285645,-0.6033881306648254,32.0,31.0,1748443579962235.0
16.096975326538086,2.67773699760437,-1.0790783166885376,4.0,39.0,1748443579998680.0
-27.07723617553711,2.8696064949035645,0.052220214158296585,49.0,78.0,1748443579952034.0
-0.5323523879051208,-5.700562000274658,-0.6188362836837769,64.0,15.0,1748443579927774.0
-4.941315650939941,7.482784748077393,0.17318516969680786,62.0,88.0,1748443579964543.0
-2.3935396671295166,7.453157424926758,0.41010504961013794,9.0,107.0,1748443579971717.0
-6.363277435302734,7.444867134094238,0.4451274871826172,25.0,103.0,1748443579965047.0
-2.2185914516448975,-0.36520811915397644,-1.0373520851135254,20.0,0.0,1748443579947283.0
-13.019448280334473,-0.9413576126098633,-0.6347277760505676,6.0,49.0,1748443579948633.0
-4.436003684997559,-9.303194046020508,-0.21349427103996277,9.0,65.0,1748443579931855.0
-2.4422783851623535,7.4957990646362305,0.2880195379257202,1.0,98.0,1748443579970715.0
38.61974334716797,-17.670059204101562,1.415342092514038,27.0,96.0,1748443579905651.0
27.269935607910156,-31.115400314331055,2.0293524265289307,58.0,105.0,1748443579913320.0
-4.418821334838867,-4.803914546966553,-0.590243399143219,56.0,25.0,1748443579936616.0
1.4623526334762573,1.4693998098373413,-0.21088190376758575,66.0,18.0,1748443579988178.0
2.3417749404907227,-7.054877758026123,-0.4775373637676239,6.0,40.0,1748443579918731.0
0.8940271735191345,0.5764027237892151,-0.008851328864693642,23.0,72.0,1748443579989756.0
-52.24985885620117,-48.38797378540039,3.3694653511047363,49.0,104.0,1748443579936931.0
-9.5751953125,-26.20439338684082,0.7346775531768799,25.0,92.0,1748443579929029.0
-5.356269359588623,-5.162247657775879,-0.5428665280342102,38.0,35.0,1748443579939453.0
-4.503841400146484,6.485229015350342,-0.6039400696754456,23.0,33.0,1748443579965128.0
-12.156513214111328,-36.15729904174805,2.0043160915374756,60.0,107.0,1748443579931819.0
-7.130204200744629,2.6880671977996826,-0.6614769697189331,53.0,27.0,1748443579957405.0
40.0081787109375,-13.412138938903809,0.4489547312259674,32.0,83.0,1748443579906811.0
8.249387741088867,7.158127307891846,1.2526812553405762,7.0,123.0,1748443579990282.0
-6.41542387008667,7.429412841796875,-0.23748286068439484,23.0,63.0,1748443579964970.0
7.59149169921875,7.165901184082031,-0.9071435928344727,60.0,27.0,1748443579989625.0
9.184577941894531,7.090831756591797,-0.9698980450630188,27.0,29.0,1748443579988957.0
0.07703062891960144,-9.453473091125488,-0.03125442564487457,10.0,75.0,1748443579926525.0
-59.73975372314453,-41.09313201904297,1.9106096029281616,49.0,92.0,1748443579938867.0
-2.443068504333496,-11.37435531616211,-0.05873792991042137,7.0,74.0,1748443579929081.0
-4.197633266448975,7.487165927886963,0.07614857703447342,64.0,82.0,1748443579967596.0
30.46681785583496,5.741523265838623,0.22165055572986603,6.0,81.0,1748443579996818.0
33.81209182739258,-6.33017110824585,-0.5339401960372925,9.0,68.0,1748443579901412.0
0.48587659001350403,0.06765209883451462,-0.1115313395857811,1.0,3.0,1748443579999395.0
-28.049367904663086,2.1439788341522217,2.933833360671997,8.0,122.0,1748443579951945.0
-27.398035049438477,11.694262504577637,-0.5142766833305359,61.0,67.0,1748443579958089.0
2.1125056743621826,-5.757201194763184,-0.6189150810241699,62.0,19.0,1748443579921056.0
-5.110048294067383,7.1270928382873535,-0.5790337920188904,25.0,39.0,1748443579966404.0
-25.441694259643555,1.2242231369018555,0.6262394189834595,56.0,91.0,1748443579952434.0
-0.08652222901582718,7.401742458343506,0.1557372361421585,17.0,89.0,1748443579974600.0
-26.85589027404785,-12.541611671447754,1.8681628704071045,32.0,113.0,1748443579942828.0
26.72439956665039,-8.757556915283203,-0.24026869237422943,56.0,72.0,1748443579903863.0
2.0191314220428467,-10.225447654724121,0.128809854388237,10.0,84.0,1748443579920359.0
-2.094938278198242,-8.947732925415039,-0.2702922224998474,10.0,60.0,1748443579927125.0
-7.160438060760498,6.418532848358154,-0.5846979022026062,23.0,42.0,1748443579962353.0
-5.2844929695129395,7.457669258117676,0.3993990123271942,25.0,102.0,1748443579965547.0
0.496987521648407,-0.2826460301876068,-0.1563037633895874,1.0,2.0,1748443579907223.0
-25.971357345581055,-9.770356178283691,0.924396812915802,38.0,96.0,1748443579943098.0
-7.812854290008545,-1.3806203603744507,-0.84341961145401,8.0,16.0,1748443579946066.0
-9.553720474243164,-23.441972732543945,0.48991644382476807,7.0,88.0,1748443579929976.0
-9.564155578613281,5.536006927490234,-0.537133514881134,25.0,49.0,1748443579958136.0
-6.419084548950195,7.457283020019531,0.430054634809494,20.0,102.0,1748443579964047.0
-2.8223085403442383,7.063629627227783,-0.5817420482635498,4.0,33.0,1748443579968739.0
4.347635746002197,-14.844271659851074,0.7037795782089233,49.0,103.0,1748443579921758.0
-10.389692306518555,-33.805545806884766,4.595798492431641,27.0,124.0,1748443579928209.0
-10.018355369567871,-5.66923189163208,-0.4170280992984772,25.0,56.0,1748443579940632.0
-8.215938568115234,-3.34383225440979,-0.770421028137207,42.0,27.0,1748443579945512.0
-6.447859287261963,3.546243906021118,-0.6657764911651611,23.0,25.0,1748443579957794.0
23.143892288208008,-8.41615104675293,-0.5968606472015381,25.0,63.0,1748443579906851.0
3.34950852394104,4.917431831359863,0.6808919906616211,89.0,123.0,1748443579986170.0
10.928589820861816,7.129276275634766,0.73018479347229,49.0,109.0,1748443579990216.0
16.266103744506836,-2.6244146823883057,-0.8591024875640869,7.0,47.0,1748443579903846.0
-6.847934246063232,7.203301429748535,0.01902582123875618,10.0,78.0,1748443579963256.0
29.426225662231445,-45.26449203491211,2.082359552383423,25.0,99.0,1748443579917482.0
-27.322755813598633,11.814654350280762,1.5637551546096802,49.0,107.0,1748443579958164.0
2.6380460262298584,-16.497783660888672,1.3741518259048462,79.0,119.0,1748443579923764.0
-9.592558860778809,-2.819061040878296,-0.7811110615730286,8.0,32.0,1748443579944291.0
31.86928367614746,-25.68049430847168,1.2924665212631226,64.0,95.0,1748443579912091.0
-22.852052688598633,-0.23715141415596008,1.5199991464614868,46.0,115.0,1748443579951498.0
7.895260810852051,7.107921600341797,-0.9809738993644714,23.0,24.0,1748443579987180.0
-5.302550792694092,-4.715737819671631,-0.5673768520355225,27.0,31.0,1748443579939728.0
-11.497222900390625,7.127081871032715,-0.20969288051128387,20.0,68.0,1748443579957308.0
-28.479219436645508,6.444665431976318,1.0696297883987427,64.0,98.0,1748443579954273.0
7.365164756774902,-8.486909866333008,0.1975976973772049,1.0,87.0,1748443579914918.0
-26.227020263671875,1.9424694776535034,0.004584979731589556,10.0,77.0,1748443579950589.0
-0.5404895544052124,1.2827281951904297,-0.1358301192522049,9.0,20.0,1748443579967177.0
33.89201736450195,14.135151863098145,1.865188717842102,46.0,106.0,1748443579994438.0
-3.879427671432495,-1.316863775253296,-0.9826498031616211,61.0,3.0,1748443579946450.0
-3.9160678386688232,-16.259613037109375,0.3817923963069916,20.0,90.0,1748443579929478.0
0.6872249841690063,-7.852469444274902,-0.4239591360092163,6.0,46.0,1748443579923951.0
-49.31782150268555,-49.13396072387695,3.780897617340088,38.0,108.0,1748443579935984.0
-2.476574420928955,-4.2986578941345215,-0.7239199876785278,65.0,7.0,1748443579934609.0
-10.435696601867676,7.094486713409424,-0.5034632086753845,38.0,54.0,1748443579959856.0
-23.65861701965332,-1.9130948781967163,2.2660164833068848,23.0,121.0,1748443579948499.0
-7.409581661224365,-4.688819885253906,-0.5177019834518433,53.0,43.0,1748443579942682.0
-26.49030303955078,-11.647059440612793,4.5838823318481445,32.0,125.0,1748443579942829.0
-9.730009078979492,-0.8131893873214722,-0.7627549171447754,8.0,32.0,1748443579947515.0
-2.6749937534332275,-2.631740093231201,-1.0719949007034302,38.0,2.0,1748443579936555.0
3.325838327407837,-5.30235481262207,-0.6097815632820129,25.0,21.0,1748443579915501.0
0.21731071174144745,-6.869678020477295,-0.46539032459259033,32.0,38.0,1748443579924837.0
8.319358825683594,5.433142185211182,-1.0220844745635986,1.0,18.0,1748443579991511.0
-6.700399398803711,7.421413898468018,0.07134321331977844,23.0,81.0,1748443579963097.0
-16.582399368286133,-36.07802200317383,1.6005585193634033,46.0,100.0,1748443579930312.0
5.359058380126953,5.380145072937012,-0.2747521698474884,17.0,56.0,1748443579986304.0
2.9148805141448975,-7.315766334533691,-0.4647786617279053,6.0,43.0,1748443579920620.0
1.313770055770874,1.676592469215393,-0.12814046442508698,38.0,42.0,1748443579986296.0
1.4377245903015137,1.5055394172668457,-0.08927951753139496,66.0,52.0,1748443579985631.0
-9.187105178833008,-1.8978270292282104,-0.7836843729019165,8.0,29.0,1748443579946178.0
50.97366714477539,-12.823095321655273,0.4676172733306885,23.0,82.0,1748443579904647.0
-4.599118232727051,5.772951126098633,-0.6406430602073669,46.0,27.0,1748443579965958.0
-0.7135730981826782,-6.717223167419434,-0.5045576095581055,60.0,34.0,1748443579927393.0
-5.041529178619385,7.47417688369751,2.4130167961120605,27.0,127.0,1748443579966833.0
12.895463943481445,-20.262887954711914,0.17166738212108612,53.0,81.0,1748443579915754.0
0.932685136795044,-0.15719178318977356,-0.0752233937382698,3.0,30.0,1748443579903008.0
-8.773808479309082,1.5136975049972534,-0.6034470796585083,27.0,38.0,1748443579953071.0
-26.580204010009766,-49.76713180541992,3.0639431476593018,38.0,108.0,1748443579931259.0
-9.090948104858398,0.7518786787986755,-0.7619733214378357,9.0,29.0,1748443579950734.0
-26.851341247558594,12.459939002990723,1.7621127367019653,23.0,111.0,1748443579958218.0
14.964516639709473,7.080922603607178,0.6666642427444458,8.0,100.0,1748443579991433.0
-0.2685362994670868,7.418635845184326,-0.063242107629776,60.0,72.0,1748443579973255.0
4.805755138397217,-4.118836879730225,-0.661088228225708,42.0,17.0,1748443579911060.0
-11.582551002502441,3.8478622436523438,-0.46563032269477844,23.0,55.0,1748443579956412.0
-8.658899307250977,-11.809616088867188,0.028058767318725586,27.0,78.0,1748443579935414.0
-3.938255786895752,-8.565582275390625,-0.34135326743125916,25.0,56.0,1748443579930683.0
-4.443360805511475,-5.522500514984131,-0.5419386625289917,25.0,33.0,1748443579935564.0
0.11120607703924179,-5.407745361328125,-0.6129953861236572,64.0,12.0,1748443579923164.0
-4.105588436126709,7.469757556915283,-0.013343908824026585,61.0,76.0,1748443579965476.0
0.7807095646858215,-0.01363767497241497,0.06659017503261566,66.0,120.0,1748443579999165.0
1.4099448919296265,1.5352439880371094,-0.19756272435188293,92.0,22.0,1748443579987177.0
-4.442793369293213,7.599474906921387,0.6766588091850281,27.0,118.0,1748443579966941.0
-4.344523906707764,-4.976121425628662,-0.5511258840560913,32.0,29.0,1748443579935838.0
-25.861347198486328,13.493708610534668,0.717284083366394,10.0,91.0,1748443579959325.0
-23.667667388916016,-1.8777990341186523,0.7493590116500854,25.0,95.0,1748443579950042.0
25.052526473999023,-9.570295333862305,-0.18235233426094055,25.0,73.0,1748443579905585.0
-0.5298908352851868,2.2837462425231934,0.14203676581382751,60.0,112.0,1748443579970219.0
15.126375198364258,7.080098628997803,-0.2881089746952057,8.0,67.0,1748443579994697.0
-0.2824963927268982,7.4277520179748535,0.09175920486450195,61.0,84.0,1748443579972869.0
9.472216606140137,7.0962629318237305,-0.6580286622047424,27.0,45.0,1748443579989184.0
-5.657534599304199,7.42703104019165,-0.20959457755088806,20.0,64.0,1748443579963474.0
-4.870452404022217,7.466691493988037,-0.4019528925418854,63.0,51.0,1748443579967468.0
4.300331115722656,-5.931288242340088,-0.6358686089515686,42.0,27.0,1748443579916670.0
-3.4510064125061035,-7.942691802978516,-0.3904297947883606,4.0,51.0,1748443579933180.0
-9.288046836853027,-4.234271049499512,-0.47823819518089294,46.0,50.0,1748443579943909.0
5.906274318695068,5.399143695831299,-0.7663328647613525,6.0,22.0,1748443579988566.0
-24.2441463470459,-47.23381042480469,3.4407668113708496,46.0,114.0,1748443579933267.0
0.9118587970733643,-0.4757731258869171,-0.02251284569501877,2.0,64.0,1748443579906523.0
10.683435440063477,-24.847957611083984,0.28766319155693054,23.0,83.0,1748443579920196.0
5.867761611938477,5.403083324432373,-0.526484489440918,9.0,39.0,1748443579989459.0
3.238323926925659,5.4123663902282715,-0.1413806676864624,2.0,64.0,1748443579982418.0
3.400059700012207,0.491763174533844,0.30164024233818054,93.0,120.0,1748443579996554.0
-2.0794100761413574,-5.661459922790527,-0.5769022703170776,38.0,22.0,1748443579930944.0
-8.393582344055176,-5.919098854064941,-0.4095633625984192,27.0,54.0,1748443579940570.0
89.83504486083984,-81.97611236572266,6.393385410308838,42.0,107.0,1748443579913431.0
39.88167190551758,7.486540794372559,2.558255910873413,32.0,113.0,1748443579996831.0
-5.228146076202393,6.046372413635254,-0.6393993496894836,46.0,31.0,1748443579964957.0
-16.495712280273438,-36.44798278808594,1.4659315347671509,42.0,98.0,1748443579932483.0
-0.2569517493247986,7.42164945602417,-0.5795843601226807,65.0,32.0,1748443579973293.0
-9.416186332702637,2.441969633102417,-0.5575417280197144,25.0,44.0,1748443579952518.0
-2.4002597332000732,-5.327297210693359,-0.599807620048523,62.0,18.0,1748443579932446.0
-28.797555923461914,10.188248634338379,3.969010829925537,62.0,124.0,1748443579953888.0
-12.26507568359375,7.161137580871582,0.42314112186431885,32.0,94.0,1748443579958767.0
-5.777968406677246,7.422616481781006,-0.211170494556427,23.0,64.0,1748443579963307.0
-11.530495643615723,7.121148109436035,-0.4226273000240326,32.0,59.0,1748443579960473.0
-25.924392700195312,-10.557096481323242,0.34652888774871826,42.0,84.0,1748443579942310.0
-9.630624771118164,5.027917861938477,-0.5659539699554443,25.0,47.0,1748443579958963.0
-14.710611343383789,-2.653271436691284,-0.570526123046875,9.0,55.0,1748443579948464.0
2.795964479446411,-7.088309288024902,-0.46294930577278137,4.0,42.0,1748443579919731.0
0.7992658615112305,-0.06002124026417732,0.20745979249477386,68.0,127.0,1748443579902440.0
2.795377731323242,-4.074530601501465,-0.7210156321525574,81.0,7.0,1748443579916718.0
6.3560967445373535,-9.12562370300293,0.253651887178421,1.0,90.0,1748443579916035.0
-9.042784690856934,-1.455937147140503,-0.7955953478813171,9.0,27.0,1748443579949123.0
-6.375701427459717,7.462030410766602,0.7547051906585693,17.0,118.0,1748443579964109.0
-20.944766998291016,-5.839837551116943,-0.034109827131032944,10.0,76.0,1748443579944140.0
-9.843012809753418,-35.00764846801758,1.9742698669433594,56.0,108.0,1748443579927814.0
-0.5992782711982727,-5.436914920806885,-0.6093427538871765,38.0,13.0,1748443579926164.0
-0.0015135558787733316,-9.198410034179688,-0.0928254947066307,9.0,71.0,1748443579926296.0
-58.90376281738281,-47.567989349365234,1.9950660467147827,38.0,92.0,1748443579937644.0
-6.324850559234619,-5.3012919425964355,-0.5159585475921631,27.0,41.0,1748443579938679.0
-6.431243419647217,5.463157653808594,-0.5865793228149414,25.0,37.0,1748443579960627.0
-7.22634744644165,-2.287775993347168,-0.860344409942627,9.0,12.0,1748443579943616.0
75.73950958251953,-92.50233459472656,9.217938423156738,25.0,118.0,1748443579914433.0
4.177048683166504,7.103518486022949,0.23080949485301971,32.0,93.0,1748443579982875.0
-2.961862325668335,-16.863718032836914,0.8688814640045166,10.0,106.0,1748443579928484.0
7.619572639465332,7.16212272644043,1.088700771331787,7.0,122.0,1748443579988723.0
-5.244060516357422,7.45564079284668,0.39830419421195984,23.0,102.0,1748443579965602.0
-8.264154434204102,-0.7993738651275635,-0.8243995904922485,8.0,20.0,1748443579946953.0
-12.457941055297852,7.146953105926514,0.2026495337486267,9.0,85.0,1748443579957707.0
-4.165395736694336,7.464438438415527,0.1204446479678154,62.0,85.0,1748443579966316.0
3.204158306121826,4.865964412689209,-0.17105236649513245,83.0,60.0,1748443579982746.0
32.31714630126953,-25.137657165527344,1.7219488620758057,58.0,101.0,1748443579909928.0
-3.2341997623443604,3.9299588203430176,-0.7427985668182373,67.0,7.0,1748443579965340.0
4.370570659637451,-14.649698257446289,0.8023566007614136,63.0,107.0,1748443579922040.0
0.7624417543411255,-15.962718963623047,0.5040999054908752,9.0,95.0,1748443579925531.0
5.84576940536499,-4.361262321472168,-0.6087436079978943,25.0,29.0,1748443579909616.0
-1.6494003534317017,-6.660045146942139,-0.48856499791145325,32.0,36.0,1748443579927336.0
0.6137377023696899,0.5389466881752014,-0.22684794664382935,1.0,2.0,1748443579987507.0
4.118259906768799,7.16207218170166,-0.18539327383041382,4.0,64.0,1748443579982139.0
83.50563049316406,-87.350341796875,6.7757673263549805,53.0,109.0,1748443579912264.0
-8.746649742126465,-13.008797645568848,1.2891654968261719,1.0,119.0,1748443579935711.0
-12.772686004638672,-5.445985794067383,-0.31202802062034607,46.0,64.0,1748443579942414.0
-1.7346101999282837,1.6617792844772339,-0.8474093675613403,92.0,1.0,1748443579962897.0
0.7034765481948853,-8.343175888061523,-0.3190819025039673,56.0,55.0,1748443579924954.0
86.48918151855469,-29.406478881835938,1.7694332599639893,75.0,88.0,1748443579904037.0
-0.6447678804397583,-5.496752738952637,-0.6165769696235657,42.0,13.0,1748443579926275.0
-5.419832229614258,4.485238075256348,-0.6363773941993713,32.0,25.0,1748443579960792.0
-1.9250249862670898,-9.468101501464844,-0.20009896159172058,20.0,65.0,1748443579927964.0
-26.31777000427246,4.102210998535156,0.4226154386997223,17.0,86.0,1748443579952817.0
-11.766502380371094,-2.7288856506347656,-0.6926946640014648,8.0,44.0,1748443579944849.0
6.368093490600586,5.275716781616211,-1.108342170715332,38.0,8.0,1748443579987842.0
-6.067809581756592,-9.936566352844238,-0.16014371812343597,7.0,69.0,1748443579933132.0
-10.606605529785156,-13.300189971923828,1.7729676961898804,3.0,122.0,1748443579936437.0
-7.492957592010498,1.7979488372802734,-0.656797468662262,32.0,28.0,1748443579952235.0
-2.5043842792510986,-11.949175834655762,0.04464193060994148,32.0,79.0,1748443579929577.0
36.962257385253906,15.03725528717041,1.260091781616211,49.0,95.0,1748443579995153.0
-14.520951271057129,-0.20045115053653717,-0.5795820951461792,7.0,54.0,1748443579950131.0
4.022006988525391,-15.771162033081055,1.1817078590393066,61.0,117.0,1748443579920431.0
16.852039337158203,-16.23233985900879,0.1672307848930359,54.0,81.0,1748443579911977.0
19.839643478393555,5.995733261108398,-0.8638418316841125,49.0,53.0,1748443579994742.0
10.98758316040039,-23.48501968383789,0.1853349357843399,42.0,81.0,1748443579917808.0
-22.857755661010742,-14.995012283325195,0.2907506227493286,56.0,83.0,1748443579942425.0
-7.116483688354492,0.4806022047996521,-0.8546199202537537,9.0,10.0,1748443579951787.0
-0.5259649157524109,1.9190037250518799,-0.2359013706445694,4.0,10.0,1748443579971453.0
-3.900411605834961,5.1337103843688965,-0.6848143339157104,38.0,16.0,1748443579963512.0
-4.4062819480896,5.233367443084717,-0.6667659282684326,27.0,21.0,1748443579963288.0
36.90925979614258,13.608732223510742,1.9981989860534668,8.0,106.0,1748443579995105.0
1.4442816972732544,1.5006999969482422,-0.0677754208445549,64.0,58.0,1748443579987916.0
-0.30350932478904724,-4.0999836921691895,-0.7463046312332153,63.0,5.0,1748443579925606.0
33.23857116699219,-24.04737663269043,1.653762698173523,3.0,100.0,1748443579908427.0
-8.922110557556152,-13.690018653869629,1.1864230632781982,1.0,117.0,1748443579933599.0
-7.637546539306641,3.60422682762146,-0.6313515305519104,38.0,34.0,1748443579957741.0
-4.551517486572266,7.594964027404785,1.147821068763733,27.0,124.0,1748443579964887.0
-2.2567241191864014,-7.143379211425781,-0.42898860573768616,6.0,44.0,1748443579928339.0
-0.4678165018558502,5.624420642852783,0.020580003038048744,95.0,79.0,1748443579974978.0
-7.013370037078857,1.073768138885498,-0.691605269908905,60.0,21.0,1748443579951844.0
-26.527555465698242,2.1907505989074707,0.23667922616004944,23.0,82.0,1748443579952040.0
26.44854164123535,7.230069637298584,-0.5211334824562073,49.0,66.0,1748443579996474.0
15.25673770904541,7.082787990570068,-0.5247700214385986,53.0,59.0,1748443579994749.0
40.04427719116211,-20.17380714416504,0.9464600682258606,9.0,89.0,1748443579907205.0
-8.578683853149414,-12.07656478881836,0.7774142026901245,2.0,107.0,1748443579936487.0
-2.148674488067627,-38.787925720214844,2.5170817375183105,7.0,114.0,1748443579926598.0
40.87174987792969,9.195390701293945,-0.2118968963623047,7.0,74.0,1748443579997202.0
-11.216129302978516,1.4330415725708008,-0.5101796984672546,32.0,51.0,1748443579953691.0
41.10383224487305,11.816912651062012,2.172584295272827,49.0,106.0,1748443579996271.0
-5.8589253425598145,7.439488410949707,-0.2785499393939972,25.0,60.0,1748443579962859.0
-0.9773534536361694,-6.729288578033447,-0.5079238414764404,60.0,34.0,1748443579928004.0
-0.20222264528274536,-7.5585527420043945,-0.4330058693885803,6.0,44.0,1748443579923896.0
6.3712615966796875,-5.29233455657959,-0.5902007818222046,62.0,36.0,1748443579909507.0
-7.715449333190918,3.1519782543182373,-0.6376199126243591,25.0,33.0,1748443579955963.0
-1.7550256252288818,2.250654935836792,-0.8133328557014465,92.0,2.0,1748443579963397.0
-6.866239547729492,7.233638286590576,-0.32815834879875183,46.0,58.0,1748443579963639.0
-5.413129806518555,-3.5384552478790283,-0.7335568070411682,62.0,12.0,1748443579939279.0
-0.45048853754997253,-6.670018196105957,-0.49932125210762024,32.0,34.0,1748443579926782.0
10.09631633758545,7.087626934051514,-1.031273365020752,32.0,29.0,1748443579989679.0
0.49842318892478943,-0.302249938249588,-0.13383761048316956,1.0,3.0,1748443579910278.0
-4.215048789978027,-13.756309509277344,0.17794223129749298,9.0,84.0,1748443579928192.0
1.5734742879867554,1.6941568851470947,0.17608506977558136,54.0,118.0,1748443579987274.0
-23.85946273803711,-3.384228467941284,0.17223984003067017,10.0,81.0,1748443579947539.0
-11.2598295211792,-8.548140525817871,-0.21916788816452026,3.0,68.0,1748443579938131.0
5.070540904998779,-11.76181411743164,0.3815133571624756,6.0,94.0,1748443579918865.0
-10.418716430664062,4.313929080963135,-0.5284555554389954,17.0,50.0,1748443579956970.0
0.9374935626983643,0.5511618852615356,-0.1166822761297226,3.0,14.0,1748443579991897.0
-8.685135841369629,3.431551694869995,-0.6167106628417969,42.0,39.0,1748443579957296.0
30.43963050842285,-27.36781883239746,1.4355756044387817,64.0,97.0,1748443579911429.0
-5.885312557220459,7.435637474060059,0.13366246223449707,23.0,85.0,1748443579963761.0
-2.7514028549194336,7.434386730194092,-0.1640665978193283,3.0,65.0,1748443579969143.0
0.34247010946273804,7.435481548309326,-0.4781809449195862,1.0,40.0,1748443579974575.0
4.703078746795654,-12.29948616027832,0.5300263166427612,4.0,100.0,1748443579917646.0
8.126763343811035,5.456282615661621,0.08687436580657959,1.0,82.0,1748443579991318.0
18.816007614135742,-16.265405654907227,0.3078673183917999,38.0,84.0,1748443579909807.0
-0.461317777633667,5.016660213470459,0.09705343097448349,92.0,88.0,1748443579972375.0
-9.328493118286133,-11.92031192779541,0.2663426399230957,64.0,87.0,1748443579936864.0
12.13989543914795,-19.36852264404297,-0.11555252224206924,46.0,74.0,1748443579916804.0
2.6564571857452393,-6.874897480010986,-0.4477307200431824,9.0,42.0,1748443579919842.0
-0.5326833128929138,1.1403112411499023,0.028120040893554688,6.0,90.0,1748443579968767.0
-3.3411777019500732,-6.063046455383301,-0.6007114052772522,53.0,27.0,1748443579934672.0
0.9277410507202148,-0.45763012766838074,-0.09311876446008682,10.0,24.0,1748443579906174.0
34.61359405517578,-22.19365882873535,1.1548902988433838,60.0,93.0,1748443579908481.0
-10.414960861206055,-5.562891960144043,-0.38867801427841187,23.0,58.0,1748443579942913.0
-7.334111213684082,7.126753330230713,-0.38996779918670654,60.0,55.0,1748443579963578.0
-8.832062721252441,-13.349226951599121,1.2322109937667847,1.0,118.0,1748443579934655.0
-61.29585266113281,-34.52777099609375,4.313448905944824,6.0,112.0,1748443579940657.0
-0.41826534271240234,6.073413848876953,-0.7064043283462524,46.0,11.0,1748443579975565.0
-16.061946868896484,-2.229447603225708,-0.5058720707893372,8.0,59.0,1748443579949471.0
-2.2824740409851074,-6.770519256591797,-0.4464544355869293,25.0,41.0,1748443579929952.0
0.6281046867370605,7.41988468170166,1.511804461479187,65.0,126.0,1748443579976722.0
-46.50098419189453,-50.06388854980469,2.755129098892212,46.0,100.0,1748443579935370.0
1.0464534759521484,0.20022638142108917,-0.08503514528274536,3.0,30.0,1748443579997345.0
-23.670743942260742,-2.3712074756622314,1.3741707801818848,38.0,110.0,1748443579948771.0
-9.04437255859375,-11.776147842407227,0.10604879260063171,27.0,81.0,1748443579935199.0
-3.6023504734039307,5.731156349182129,-0.6834799647331238,62.0,19.0,1748443579967734.0
-5.1047163009643555,-0.014359625987708569,-0.9279353618621826,20.0,5.0,1748443579949394.0
15.223255157470703,7.111150741577148,0.8526359796524048,10.0,106.0,1748443579993772.0
30.26387596130371,-65.75947570800781,9.410843849182129,6.0,124.0,1748443579916599.0
-11.987832069396973,0.24290770292282104,-0.6666539311408997,6.0,45.0,1748443579949739.0
1.9719380140304565,-3.6521952152252197,-0.7534979581832886,49.0,5.0,1748443579916551.0
-7.391483783721924,-13.056041717529297,1.2337396144866943,1.0,119.0,1748443579934488.0
-4.980742931365967,-3.463224172592163,-0.7584379315376282,38.0,9.0,1748443579940114.0
1.460508942604065,1.7620326280593872,0.03589293360710144,8.0,86.0,1748443579986371.0
30.800222396850586,7.094029426574707,-0.3803015351295471,54.0,70.0,1748443579996751.0
0.9533076882362366,-8.595991134643555,-0.29950374364852905,2.0,57.0,1748443579923017.0
-3.878732681274414,-6.656126022338867,-0.4815196096897125,17.0,41.0,1748443579933177.0
-14.592339515686035,-7.244584083557129,-0.25264108180999756,10.0,68.0,1748443579941133.0
-7.251598358154297,7.115966320037842,0.2847540080547333,38.0,93.0,1748443579961765.0
-27.133892059326172,-13.552363395690918,0.4812988042831421,38.0,86.0,1748443579942979.0
5.276613235473633,-4.1178131103515625,-0.64052414894104,32.0,22.0,1748443579910892.0
-4.288410663604736,5.522250175476074,-0.6692257523536682,27.0,22.0,1748443579964844.0
19.206981658935547,-38.98711013793945,1.676106572151184,25.0,99.0,1748443579919371.0
-3.0360941886901855,-13.024192810058594,0.11878465861082077,17.0,82.0,1748443579929362.0
-10.648751258850098,-3.3845789432525635,-0.5821241140365601,23.0,47.0,1748443579946405.0
24.293498992919922,8.366960525512695,-0.7124086618423462,46.0,61.0,1748443579994135.0
7.565040588378906,7.160629749298096,0.99289870262146,60.0,121.0,1748443579987723.0
-0.21758265793323517,5.078601360321045,-0.6798009872436523,25.0,8.0,1748443579973176.0
-3.9175562858581543,2.3128883838653564,-0.7362009286880493,58.0,6.0,1748443579958842.0
-29.947404861450195,4.643784523010254,2.6808056831359863,38.0,120.0,1748443579951278.0
30.484769821166992,5.858933448791504,0.2760664224624634,23.0,82.0,1748443579997706.0
-12.032119750976562,-1.0186384916305542,-0.6713839769363403,6.0,45.0,1748443579948072.0
-13.183629035949707,-8.557304382324219,-0.2163284569978714,17.0,69.0,1748443579940246.0
-0.1432739794254303,6.331079483032227,0.3756200075149536,58.0,111.0,1748443579975938.0
40.589942932128906,9.335601806640625,0.5884400010108948,61.0,85.0,1748443579995814.0
-8.533760070800781,6.0512213706970215,-0.599723219871521,23.0,44.0,1748443579958297.0
-55.90568161010742,-54.58019256591797,10.157571792602539,49.0,124.0,1748443579936157.0
1.398349404335022,-21.419795989990234,0.6025209426879883,32.0,93.0,1748443579923365.0
2.007120370864868,-5.253521919250488,-0.6265935301780701,25.0,13.0,1748443579918609.0
-24.76495361328125,-6.095100402832031,0.4935971200466156,49.0,88.0,1748443579944986.0
9.180803298950195,7.095550060272217,-0.36171647906303406,62.0,59.0,1748443579991194.0
-5.7268595695495605,-13.948431968688965,0.13396096229553223,49.0,82.0,1748443579931919.0
11.972392082214355,7.115751266479492,0.5606589913368225,25.0,100.0,1748443579989933.0
-47.22690200805664,-51.74262237548828,2.3352391719818115,25.0,96.0,1748443579935594.0
4.3851799964904785,7.123879909515381,0.555173397064209,32.0,115.0,1748443579985442.0
9.149295806884766,-8.797356605529785,-0.6393082141876221,6.0,48.0,1748443579911015.0
-5.544533729553223,4.807067394256592,-0.6125012636184692,27.0,29.0,1748443579960791.0
-5.438345909118652,7.422243595123291,-0.47910481691360474,23.0,47.0,1748443579966240.0
-0.9868704676628113,-54.37252426147461,11.077912330627441,53.0,126.0,1748443579925655.0
40.08366012573242,11.830791473388672,0.22596928477287292,53.0,80.0,1748443579994259.0
-5.453096389770508,-4.427762031555176,-0.586197555065155,46.0,29.0,1748443579938561.0
7.584600448608398,5.449425220489502,-0.2909662425518036,23.0,59.0,1748443579991749.0
-3.2481579780578613,1.0589244365692139,-0.8182878494262695,92.0,3.0,1748443579956677.0
4.47802734375,-5.6210455894470215,-0.6237155199050903,60.0,27.0,1748443579915948.0
-8.927970886230469,7.158721446990967,0.08168333023786545,46.0,81.0,1748443579960542.0
5.831875324249268,-7.456183910369873,-0.4929276704788208,6.0,47.0,1748443579915731.0
-0.5331739783287048,1.7052103281021118,0.4719710350036621,3.0,127.0,1748443579971444.0
-4.434571743011475,7.4665913581848145,-0.28561320900917053,64.0,58.0,1748443579967194.0
-3.931183099746704,-4.016173362731934,-0.7023496031761169,56.0,9.0,1748443579937112.0
4.4762349128723145,-5.248889446258545,-0.6481483578681946,56.0,23.0,1748443579915057.0
-14.844395637512207,-10.656545639038086,0.1305573582649231,42.0,81.0,1748443579939867.0
3.3110857009887695,7.1092634201049805,0.5066516995429993,8.0,114.0,1748443579982664.0
2.8269288539886475,-6.3268327713012695,-0.5782646536827087,38.0,29.0,1748443579917724.0
-3.6057915687561035,5.25785493850708,-0.6995458602905273,27.0,14.0,1748443579965786.0
3.089386463165283,-6.512113571166992,-0.5511240363121033,23.0,33.0,1748443579917728.0
-3.880833387374878,-8.526627540588379,-0.3245057761669159,6.0,57.0,1748443579931573.0
-4.529759407043457,-9.491519927978516,-0.19955065846443176,20.0,66.0,1748443579932800.0
15.618447303771973,-12.103730201721191,-0.7545236349105835,17.0,55.0,1748443579911791.0
-5.58328914642334,6.375157356262207,-0.5742754340171814,25.0,38.0,1748443579963904.0
-9.176190376281738,-0.9486636519432068,-0.786793053150177,7.0,28.0,1748443579946844.0
31.360477447509766,-8.769930839538574,-0.051105838268995285,42.0,76.0,1748443579902804.0
138.2519989013672,-76.88662719726562,4.721843242645264,32.0,94.0,1748443579908425.0
15.284974098205566,7.074481010437012,-0.9370995759963989,8.0,45.0,1748443579992517.0
23.56863784790039,-20.445219039916992,0.7128315567970276,32.0,90.0,1748443579912093.0
-3.4467008113861084,4.27906608581543,-0.7351181507110596,60.0,8.0,1748443579963066.0
-9.063837051391602,-4.252987861633301,-0.4865110516548157,27.0,49.0,1748443579942797.0
-27.206830978393555,7.003787040710449,0.004898266401141882,38.0,77.0,1748443579953424.0
-0.5351263284683228,2.0831897258758545,0.2759929299354553,49.0,124.0,1748443579969498.0
3.3400235176086426,-6.559948444366455,-0.5745071768760681,64.0,32.0,1748443579916340.0
-7.3105597496032715,-1.20281982421875,-0.8604236245155334,20.0,11.0,1748443579949064.0
-7.208440780639648,7.120540618896484,0.178119957447052,10.0,87.0,1748443579963706.0
23.26950454711914,-10.81171989440918,-0.12972453236579895,1.0,74.0,1748443579907640.0
-2.2028017044067383,-8.350713729858398,-0.35925644636154175,53.0,53.0,1748443579928509.0
6.698937892913818,-8.878035545349121,0.699852705001831,93.0,113.0,1748443579914490.0
4.578558921813965,-5.14655876159668,-0.6472090482711792,58.0,23.0,1748443579914724.0
13.419123649597168,-17.241785049438477,-0.14852288365364075,56.0,73.0,1748443579914249.0
-2.621753692626953,-40.76648712158203,2.360917806625366,27.0,110.0,1748443579926372.0
-0.5244017243385315,-16.002099990844727,0.6446974277496338,60.0,100.0,1748443579923979.0
11.21916675567627,7.102967262268066,0.37241387367248535,23.0,93.0,1748443579990431.0
-4.5164289474487305,7.528156280517578,1.7834099531173706,32.0,126.0,1748443579966778.0
-3.293914318084717,5.764050006866455,-0.6819027662277222,49.0,18.0,1748443579967457.0
-16.033050537109375,-38.726863861083984,3.2302768230438232,49.0,118.0,1748443579931598.0
-1.4913297891616821,-6.880337715148926,-0.43987971544265747,7.0,41.0,1748443579928175.0
-1.8850427865982056,-6.273929119110107,-0.5465331673622131,10.0,29.0,1748443579929057.0
79.11279296875,-90.91339111328125,7.812659740447998,27.0,114.0,1748443579914323.0
1.0014019012451172,0.4763892590999603,-0.10380413383245468,1.0,22.0,1748443579993287.0
-2.425492763519287,7.45966100692749,0.47937411069869995,4.0,112.0,1748443579968830.0
-2.1272940635681152,-8.732481956481934,-0.3253835439682007,23.0,56.0,1748443579927627.0
-16.389299392700195,-38.59968566894531,2.570436954498291,46.0,112.0,1748443579930208.0
-3.6753530502319336,-6.5128045082092285,-0.48043346405029297,23.0,40.0,1748443579932009.0
2.8308629989624023,5.2902069091796875,-0.8030982613563538,49.0,8.0,1748443579981676.0
-4.4448723793029785,-2.751715898513794,-0.9504144191741943,20.0,5.0,1748443579940611.0
-5.3685078620910645,7.465205192565918,0.4018076956272125,25.0,102.0,1748443579965436.0
13.513498306274414,7.142435073852539,0.3488713800907135,17.0,90.0,1748443579992989.0
2.8921048641204834,-9.706670761108398,-0.10223963856697083,3.0,71.0,1748443579921686.0
-10.477374076843262,2.6691651344299316,-0.5066321492195129,32.0,50.0,1748443579954691.0
-12.204195976257324,7.190329074859619,0.9785805940628052,9.0,116.0,1748443579956942.0
-2.1652045249938965,2.9883885383605957,-0.7616201639175415,67.0,4.0,1748443579963563.0
-7.5965118408203125,1.1343623399734497,-0.6546664237976074,27.0,28.0,1748443579950845.0
-10.940781593322754,-8.884407043457031,-0.07118905335664749,25.0,74.0,1748443579939863.0
-2.6946933269500732,-39.606956481933594,2.3637588024139404,23.0,111.0,1748443579927371.0
-6.9588727951049805,6.100962162017822,-0.5949909687042236,25.0,40.0,1748443579960298.0
3.1958813667297363,4.91598653793335,-0.07026787102222443,81.0,70.0,1748443579984529.0
-5.705613613128662,-9.064537048339844,-0.259193480014801,23.0,63.0,1748443579935239.0
0.8227935433387756,0.07539268583059311,-0.06541164964437485,6.0,30.0,1748443579998900.0
17.260038375854492,4.75443696975708,-0.9648911356925964,53.0,46.0,1748443579996072.0
-34.864200592041016,9.713286399841309,2.2815263271331787,6.0,113.0,1748443579954111.0
-5.59546422958374,7.441131114959717,0.26087233424186707,23.0,93.0,1748443579964155.0
13.616167068481445,-17.633525848388672,-0.07378365844488144,60.0,75.0,1748443579916194.0
-4.24563455581665,7.334573745727539,-0.48551756143569946,56.0,44.0,1748443579965129.0
-3.3048994541168213,7.475955963134766,0.28585243225097656,9.0,97.0,1748443579968159.0
1.934707522392273,-4.417421817779541,-0.7035892605781555,67.0,7.0,1748443579919718.0
-27.48207664489746,3.6244752407073975,2.281494617462158,32.0,119.0,1748443579953387.0
28.051895141601562,-49.537296295166016,2.394749402999878,32.0,101.0,1748443579916204.0
-9.973771095275879,7.1513214111328125,0.17310383915901184,23.0,85.0,1748443579959318.0
1.7147884368896484,-6.037331581115723,-0.589439332485199,67.0,23.0,1748443579921889.0
18.98067283630371,-15.217862129211426,0.21629579365253448,56.0,82.0,1748443579911478.0
0.1055416390299797,7.3715291023254395,-0.5637539625167847,9.0,33.0,1748443579975016.0
-6.051177978515625,1.4259711503982544,-0.7214588522911072,65.0,11.0,1748443579955345.0
27.236045837402344,-51.83259963989258,2.5654380321502686,20.0,102.0,1748443579917648.0
92.1173324584961,-80.07923889160156,8.126595497131348,20.0,115.0,1748443579913046.0
-0.5306199193000793,1.11708402633667,-0.06944163143634796,23.0,44.0,1748443579966462.0
128.09498596191406,-30.701852798461914,3.4715359210968018,7.0,92.0,1748443579902203.0
-24.847410202026367,-6.350445747375488,0.8095287680625916,61.0,95.0,1748443579947319.0
-8.799210548400879,-12.680204391479492,0.379188597202301,17.0,91.0,1748443579936315.0
8.489919662475586,7.116599082946777,-0.13306941092014313,32.0,70.0,1748443579989252.0
14.493062019348145,-4.310303211212158,-0.8411080837249756,6.0,45.0,1748443579904012.0
2.2749969959259033,7.171203136444092,2.012360095977783,42.0,127.0,1748443579981166.0
-5.512936592102051,7.467427730560303,0.47035855054855347,25.0,106.0,1748443579965606.0
5.725438594818115,5.447763442993164,0.09758322685956955,20.0,84.0,1748443579986369.0
-21.213397979736328,-7.048254013061523,-0.03506801277399063,46.0,76.0,1748443579943361.0
0.6038618087768555,-5.844806671142578,-0.5722790360450745,23.0,21.0,1748443579922777.0
-7.630084991455078,7.13247537612915,0.43837159872055054,38.0,101.0,1748443579961381.0
-9.28864574432373,-10.824908256530762,0.0024844759609550238,46.0,77.0,1748443579935693.0
0.2073553502559662,7.1829400062561035,-0.7383431196212769,8.0,18.0,1748443579976178.0
2.6090309619903564,-16.542932510375977,0.20718622207641602,4.0,84.0,1748443579920970.0
-0.4854969382286072,2.6143321990966797,-0.16040386259555817,64.0,42.0,1748443579972796.0
0.8052902817726135,0.0754895806312561,0.012387826107442379,65.0,86.0,1748443579998871.0
-6.9719977378845215,-3.354519844055176,-0.7544342279434204,42.0,21.0,1748443579942284.0
-0.5512195229530334,1.290514349937439,0.04103096202015877,20.0,94.0,1748443579968931.0
-2.8073530197143555,-5.517369747161865,-0.5922098159790039,27.0,22.0,1748443579932834.0
-0.2537786364555359,7.304516315460205,-0.6612535715103149,42.0,25.0,1748443579974235.0
2.912040948867798,5.414089202880859,-0.37315961718559265,2.0,42.0,1748443579983574.0
-0.23408924043178558,6.888513088226318,-0.7080705165863037,58.0,18.0,1748443579975177.0
1.3424233198165894,1.5733073949813843,-0.15297557413578033,68.0,34.0,1748443579986960.0
0.8298656940460205,0.10515867173671722,-0.10863486677408218,3.0,8.0,1748443579996897.0
-3.1369993686676025,-6.777530670166016,-0.4797899127006531,25.0,40.0,1748443579930731.0
6.303134441375732,5.434696674346924,-0.520341694355011,6.0,41.0,1748443579988463.0
-25.595104217529297,-8.676811218261719,1.2306466102600098,23.0,103.0,1748443579946101.0
-5.543076515197754,-7.524442672729492,-0.3888643682003021,4.0,53.0,1748443579934513.0
-0.5358863472938538,1.1045910120010376,0.048367418348789215,23.0,100.0,1748443579966323.0
22.890661239624023,8.290340423583984,-0.8024213910102844,27.0,58.0,1748443579995193.0
10.255987167358398,7.0901103019714355,-0.7150766849517822,20.0,44.0,1748443579988851.0
0.9179850816726685,-0.28358030319213867,-0.07644987106323242,1.0,30.0,1748443579905117.0
